1.125	-1.875	-0.325	154	154	154
1.125	-1.825	-0.325	155	155	155
1.375	-1.425	-0.325	155	155	155
1.375	-1.475	-0.325	155	155	155
1.325	-1.475	-0.325	155	155	155
1.325	-1.425	-0.325	155	155	155
1.275	-1.525	-0.325	155	155	155
1.275	-1.575	-0.325	155	155	155
1.225	-1.575	-0.325	155	155	155
1.225	-1.525	-0.325	155	155	155
1.175	-1.725	-0.325	155	155	155
1.175	-1.775	-0.325	155	155	155
1.125	-1.775	-0.325	155	155	155
1.125	-1.725	-0.325	155	155	155
1.375	-1.325	-0.325	155	155	155
1.375	-1.375	-0.325	155	155	155
1.325	-1.375	-0.325	155	155	155
1.175	-1.675	-0.325	155	155	155
1.125	-1.675	-0.325	155	155	155
1.075	-1.825	-0.325	154	154	154
1.075	-1.875	-0.325	145	145	145
1.025	-1.875	-0.325	80	80	80
1.025	-1.825	-0.325	154	154	154
1.375	-1.225	-0.325	155	155	155
1.375	-1.275	-0.325	155	155	155
1.325	-1.275	-0.325	155	155	155
1.325	-1.225	-0.325	155	155	155
1.275	-1.425	-0.325	155	155	155
1.275	-1.475	-0.325	155	155	155
1.225	-1.475	-0.325	155	155	155
1.225	-1.425	-0.325	155	155	155
1.175	-1.525	-0.325	155	155	155
1.175	-1.575	-0.325	155	155	155
1.125	-1.575	-0.325	155	155	155
1.075	-1.725	-0.325	155	155	155
1.075	-1.775	-0.325	154	154	154
1.025	-1.775	-0.325	104	104	104
1.025	-1.725	-0.325	154	154	154
1.275	-1.325	-0.325	155	155	155
1.225	-1.375	-0.325	155	155	155
1.225	-1.325	-0.325	155	155	155
1.075	-1.625	-0.325	155	155	155
1.075	-1.675	-0.325	155	155	155
1.025	-1.675	-0.325	154	154	154
1.025	-1.625	-0.325	155	155	155
1.175	-1.425	-0.325	155	155	155
1.175	-1.475	-0.325	155	155	155
1.125	-1.475	-0.325	155	155	155
1.125	-1.425	-0.325	155	155	155
1.275	-1.225	-0.325	155	155	155
1.275	-1.275	-0.325	155	155	155
1.225	-1.275	-0.325	155	155	155
1.075	-1.575	-0.325	155	155	155
1.025	-1.575	-0.325	155	155	155
1.175	-1.325	-0.325	155	155	155
1.175	-1.375	-0.325	155	155	155
1.125	-1.375	-0.325	155	155	155
1.125	-1.325	-0.325	155	155	155
0.975	-1.775	-0.325	80	80	80
0.925	-1.775	-0.325	80	80	80
0.925	-1.725	-0.325	80	80	80
0.975	-1.625	-0.325	154	154	154
0.975	-1.675	-0.325	80	80	80
0.925	-1.675	-0.325	80	80	80
0.925	-1.625	-0.325	154	154	154
1.175	-1.275	-0.325	155	155	155
1.075	-1.425	-0.325	155	155	155
1.075	-1.475	-0.325	155	155	155
1.025	-1.475	-0.325	155	155	155
1.025	-1.425	-0.325	155	155	155
1.075	-1.375	-0.325	155	155	155
1.025	-1.375	-0.325	155	155	155
1.025	-1.325	-0.325	155	155	155
0.975	-1.525	-0.325	155	155	155
0.925	-1.525	-0.325	83	83	83
1.175	-1.125	-0.325	155	155	155
1.125	-1.175	-0.325	155	155	155
1.125	-1.125	-0.325	155	155	155
0.975	-1.425	-0.325	155	155	155
0.975	-1.475	-0.325	155	155	155
0.925	-1.475	-0.325	154	154	154
0.925	-1.425	-0.325	155	155	155
1.025	-1.275	-0.325	155	155	155
1.025	-1.225	-0.325	155	155	155
0.975	-1.325	-0.325	155	155	155
0.975	-1.375	-0.325	155	155	155
0.925	-1.375	-0.325	155	155	155
0.925	-1.325	-0.325	155	155	155
1.075	-1.125	-0.325	155	155	155
1.075	-1.175	-0.325	155	155	155
1.025	-1.175	-0.325	155	155	155
1.025	-1.125	-0.325	155	155	155
0.875	-1.525	-0.325	80	80	80
0.825	-1.525	-0.325	80	80	80
0.975	-1.225	-0.325	155	155	155
0.975	-1.275	-0.325	155	155	155
0.925	-1.275	-0.325	155	155	155
0.925	-1.225	-0.325	155	155	155
0.875	-1.425	-0.325	154	154	154
0.875	-1.475	-0.325	80	80	80
0.825	-1.475	-0.325	80	80	80
0.825	-1.425	-0.325	90	90	90
1.075	-1.025	-0.325	155	155	155
1.075	-1.075	-0.325	155	155	155
1.025	-1.075	-0.325	155	155	155
1.025	-1.025	-0.325	155	155	155
0.875	-1.325	-0.325	155	155	155
0.875	-1.375	-0.325	154	154	154
0.825	-1.375	-0.325	80	80	80
0.825	-1.325	-0.325	117	117	117
0.975	-1.125	-0.325	155	155	155
0.975	-1.175	-0.325	155	155	155
0.925	-1.175	-0.325	155	155	155
0.925	-1.125	-0.325	155	155	155
0.875	-1.225	-0.325	155	155	155
0.875	-1.275	-0.325	155	155	155
0.825	-1.275	-0.325	153	153	153
0.825	-1.225	-0.325	155	155	155
0.975	-1.025	-0.325	155	155	155
0.975	-1.075	-0.325	155	155	155
0.925	-1.075	-0.325	155	155	155
0.925	-1.025	-0.325	155	155	155
0.875	-1.125	-0.325	155	155	155
0.875	-1.175	-0.325	155	155	155
0.825	-1.175	-0.325	155	155	155
0.825	-1.125	-0.325	155	155	155
0.775	-1.325	-0.325	80	80	80
0.775	-1.375	-0.325	80	80	80
0.725	-1.375	-0.325	80	80	80
0.725	-1.325	-0.325	144	144	144
0.975	-0.925	-0.325	155	155	155
0.975	-0.975	-0.325	155	155	155
0.925	-0.975	-0.325	155	155	155
0.925	-0.925	-0.325	155	155	155
0.775	-1.225	-0.325	155	155	155
0.775	-1.275	-0.325	137	137	137
0.725	-1.275	-0.325	155	155	155
0.725	-1.225	-0.325	155	155	155
0.875	-1.025	-0.325	155	155	155
0.875	-1.075	-0.325	155	155	155
0.825	-1.075	-0.325	155	155	155
0.825	-1.025	-0.325	155	155	155
0.775	-1.125	-0.325	155	155	155
0.775	-1.175	-0.325	155	155	155
0.725	-1.175	-0.325	155	155	155
0.725	-1.125	-0.325	155	155	155
0.875	-0.925	-0.325	155	155	155
0.875	-0.975	-0.325	155	155	155
0.825	-0.975	-0.325	155	155	155
0.825	-0.925	-0.325	155	155	155
0.775	-1.025	-0.325	155	155	155
0.775	-1.075	-0.325	155	155	155
0.725	-1.075	-0.325	155	155	155
0.725	-1.025	-0.325	155	155	155
0.875	-0.825	-0.325	155	155	155
0.875	-0.875	-0.325	155	155	155
0.825	-0.875	-0.325	155	155	155
0.825	-0.825	-0.325	155	155	155
0.675	-1.125	-0.325	155	155	155
0.675	-1.175	-0.325	155	155	155
0.625	-1.175	-0.325	155	155	155
0.625	-1.125	-0.325	155	155	155
0.775	-0.925	-0.325	155	155	155
0.775	-0.975	-0.325	155	155	155
0.725	-0.975	-0.325	155	155	155
0.725	-0.925	-0.325	155	155	155
0.675	-1.025	-0.325	155	155	155
0.675	-1.075	-0.325	155	155	155
0.625	-1.075	-0.325	155	155	155
0.625	-1.025	-0.325	155	155	155
0.775	-0.825	-0.325	155	155	155
0.775	-0.875	-0.325	155	155	155
0.725	-0.875	-0.325	155	155	155
0.725	-0.825	-0.325	155	155	155
0.675	-0.925	-0.325	155	155	155
0.675	-0.975	-0.325	155	155	155
0.625	-0.975	-0.325	155	155	155
0.625	-0.925	-0.325	155	155	155
0.775	-0.725	-0.325	155	155	155
0.775	-0.775	-0.325	155	155	155
0.725	-0.775	-0.325	155	155	155
0.725	-0.725	-0.325	155	155	155
0.675	-0.825	-0.325	155	155	155
0.675	-0.875	-0.325	155	155	155
0.625	-0.875	-0.325	155	155	155
0.625	-0.825	-0.325	155	155	155
0.575	-1.025	-0.325	155	155	155
0.575	-1.075	-0.325	155	155	155
0.525	-1.075	-0.325	155	155	155
0.525	-1.025	-0.325	155	155	155
0.575	-0.925	-0.325	155	155	155
0.575	-0.975	-0.325	155	155	155
0.525	-0.975	-0.325	155	155	155
0.525	-0.925	-0.325	155	155	155
0.675	-0.725	-0.325	155	155	155
0.675	-0.775	-0.325	155	155	155
0.625	-0.775	-0.325	155	155	155
0.625	-0.725	-0.325	155	155	155
0.575	-0.825	-0.325	155	155	155
0.575	-0.875	-0.325	155	155	155
0.525	-0.875	-0.325	155	155	155
0.525	-0.825	-0.325	155	155	155
0.675	-0.625	-0.325	155	155	155
0.675	-0.675	-0.325	155	155	155
0.625	-0.675	-0.325	155	155	155
0.625	-0.625	-0.325	155	155	155
0.575	-0.725	-0.325	155	155	155
0.575	-0.775	-0.325	155	155	155
0.525	-0.775	-0.325	155	155	155
0.525	-0.725	-0.325	155	155	155
0.575	-0.625	-0.325	155	155	155
0.575	-0.675	-0.325	155	155	155
0.525	-0.675	-0.325	155	155	155
0.525	-0.625	-0.325	155	155	155
0.475	-0.825	-0.325	155	155	155
0.475	-0.875	-0.325	155	155	155
0.425	-0.875	-0.325	155	155	155
0.425	-0.825	-0.325	155	155	155
0.475	-0.725	-0.325	155	155	155
0.475	-0.775	-0.325	155	155	155
0.425	-0.775	-0.325	155	155	155
0.425	-0.725	-0.325	155	155	155
0.575	-0.525	-0.325	155	155	155
0.575	-0.575	-0.325	155	155	155
0.525	-0.575	-0.325	155	155	155
0.525	-0.525	-0.325	155	155	155
0.675	-0.325	-0.325	155	155	155
0.675	-0.375	-0.325	155	155	155
0.625	-0.375	-0.325	155	155	155
0.475	-0.625	-0.325	155	155	155
0.475	-0.675	-0.325	155	155	155
0.425	-0.675	-0.325	155	155	155
0.425	-0.625	-0.325	155	155	155
0.575	-0.475	-0.325	155	155	155
0.575	-0.525	-0.275	155	155	155
0.675	-0.275	-0.325	155	155	155
0.425	-2.375	0.875	74	46	19
1.075	-1.925	0.825	75	49	23
1.075	-1.925	0.875	103	84	65
0.575	-2.475	0.825	80	55	32
0.575	-2.475	0.875	70	41	15
0.725	-2.325	0.875	78	51	24
0.475	-2.525	0.825	72	45	21
0.425	-2.525	0.825	73	46	20
0.475	-2.525	0.875	76	50	22
0.425	-2.525	0.875	71	45	17
0.675	-2.475	0.825	83	62	43
0.625	-2.475	0.825	82	59	39
0.675	-2.475	0.875	82	60	41
0.625	-2.475	0.875	80	56	33
1.125	-2.075	0.875	80	57	35
1.125	-2.025	0.875	80	54	32
0.775	-2.425	0.825	93	85	72
0.725	-2.475	0.825	90	74	60
0.775	-2.425	0.875	73	43	17
0.725	-2.475	0.875	88	72	57
1.175	-2.125	0.825	91	79	65
1.175	-2.175	0.825	84	63	44
1.125	-2.175	0.825	88	71	54
1.125	-2.125	0.825	92	81	66
1.175	-2.125	0.875	87	69	51
1.175	-2.175	0.875	82	60	40
1.125	-2.175	0.875	85	65	47
1.125	-2.125	0.875	91	78	62
0.975	-2.375	0.875	79	52	25
0.875	-2.425	0.825	90	72	55
0.825	-2.425	0.825	93	85	73
0.875	-2.425	0.875	89	73	57
0.825	-2.425	0.875	92	81	66
1.175	-2.275	0.825	75	49	23
1.175	-2.275	0.875	75	47	22
1.125	-2.275	0.875	78	52	26
1.125	-2.225	0.875	81	57	36
1.075	-2.375	0.825	78	51	24
1.025	-2.375	0.825	82	58	36
1.075	-2.325	0.875	75	47	21
1.075	-2.375	0.875	77	51	25
1.025	-2.375	0.875	80	56	31
0.475	-2.525	0.725	76	49	22
0.425	-2.525	0.725	77	52	23
0.475	-2.525	0.775	74	48	22
0.425	-2.525	0.775	75	48	23
0.575	-2.475	0.725	80	56	32
0.575	-2.475	0.775	81	57	34
1.175	-2.325	0.825	77	51	21
1.125	-2.375	0.825	74	46	18
1.125	-2.325	0.825	78	51	24
1.175	-2.325	0.875	74	48	19
1.125	-2.375	0.875	76	49	20
1.125	-2.325	0.875	73	45	19
0.675	-2.475	0.725	80	57	39
0.625	-2.475	0.725	84	61	39
0.675	-2.475	0.775	83	62	41
0.625	-2.475	0.775	82	59	37
0.775	-2.425	0.725	92	79	63
0.725	-2.475	0.725	90	73	57
0.775	-2.425	0.775	92	81	66
0.725	-2.475	0.775	90	72	56
1.225	-2.325	0.825	72	47	19
1.225	-2.325	0.875	72	45	18
1.175	-2.125	0.725	91	77	61
1.175	-2.175	0.725	83	61	41
1.125	-2.175	0.725	86	68	50
1.125	-2.125	0.725	91	77	62
1.175	-2.125	0.775	91	76	60
1.175	-2.175	0.775	83	62	43
1.125	-2.175	0.775	87	70	52
1.125	-2.125	0.775	92	78	63
0.875	-2.425	0.725	88	70	52
0.825	-2.425	0.725	93	83	69
0.875	-2.425	0.775	89	71	53
0.825	-2.425	0.775	93	83	68
0.975	-2.375	0.725	85	62	42
0.975	-2.375	0.775	79	55	37
1.175	-2.275	0.725	77	53	26
1.175	-2.275	0.775	76	51	25
1.075	-2.375	0.725	80	53	25
1.025	-2.375	0.725	83	59	35
1.075	-2.375	0.775	77	50	23
1.025	-2.375	0.775	78	53	30
1.175	-2.325	0.725	76	49	21
1.125	-2.375	0.725	78	51	23
1.125	-2.325	0.725	77	49	21
1.175	-2.325	0.775	76	49	21
1.125	-2.375	0.775	75	47	19
1.125	-2.325	0.775	73	43	19
0.475	-2.525	0.625	77	52	26
0.425	-2.525	0.625	78	54	27
0.475	-2.525	0.675	77	54	27
0.425	-2.525	0.675	79	55	28
1.225	-2.325	0.725	74	48	22
1.225	-2.325	0.775	73	48	20
0.575	-2.475	0.625	79	53	28
0.575	-2.475	0.675	78	53	30
0.675	-2.475	0.625	87	67	48
0.625	-2.475	0.625	82	57	35
0.675	-2.475	0.675	83	60	39
0.625	-2.475	0.675	78	53	31
0.775	-2.425	0.625	88	70	56
0.725	-2.475	0.625	87	67	50
0.775	-2.425	0.675	91	76	61
0.725	-2.475	0.675	88	69	52
1.175	-2.125	0.625	90	72	55
1.175	-2.175	0.625	83	61	40
1.125	-2.175	0.625	86	66	46
1.125	-2.125	0.625	89	71	54
1.175	-2.125	0.675	90	74	58
1.175	-2.175	0.675	83	61	41
1.125	-2.175	0.675	86	66	48
1.125	-2.125	0.675	90	75	59
0.875	-2.425	0.625	85	65	48
0.825	-2.425	0.625	89	73	59
0.875	-2.425	0.675	88	71	55
0.825	-2.425	0.675	92	80	64
0.975	-2.375	0.625	86	61	39
0.975	-2.375	0.675	85	62	41
1.175	-2.275	0.625	76	50	24
1.175	-2.275	0.675	77	52	26
1.075	-2.375	0.625	81	56	28
1.025	-2.375	0.625	84	59	34
1.075	-2.375	0.675	81	54	26
1.025	-2.375	0.675	83	59	35
1.175	-2.325	0.625	79	52	22
1.125	-2.375	0.625	78	50	23
1.125	-2.325	0.625	81	56	26
1.175	-2.325	0.675	77	49	21
1.125	-2.375	0.675	76	48	20
1.125	-2.325	0.675	79	53	25
1.225	-2.325	0.625	74	48	22
1.225	-2.325	0.675	74	48	22
0.475	-2.525	0.575	79	55	28
0.425	-2.525	0.575	75	47	22
0.575	-2.475	0.575	78	53	28
1.125	-2.075	0.525	86	65	46
0.675	-2.475	0.575	84	61	42
0.625	-2.475	0.575	83	60	39
0.775	-2.425	0.575	87	68	47
0.725	-2.475	0.575	90	74	55
1.125	-2.125	0.525	83	61	41
1.175	-2.125	0.575	88	70	52
1.175	-2.175	0.575	78	54	30
1.125	-2.175	0.575	84	63	42
1.125	-2.125	0.575	87	68	50
0.875	-2.425	0.575	82	60	39
0.825	-2.425	0.575	90	72	54
0.975	-2.375	0.575	81	55	30
1.175	-2.275	0.575	75	49	23
1.075	-2.375	0.575	78	51	24
1.025	-2.375	0.575	80	53	27
1.175	-2.325	0.575	76	50	23
1.125	-2.375	0.575	79	52	24
1.125	-2.325	0.575	78	51	24
1.075	-1.925	0.525	76	50	23
1.075	-1.925	0.575	76	50	23
1.075	-1.925	0.425	74	46	21
1.075	-1.925	0.475	78	51	24
0.575	-2.475	0.425	81	55	29
0.575	-2.475	0.475	73	47	20
0.725	-2.325	0.475	80	55	30
0.475	-2.525	0.425	73	45	19
0.425	-2.525	0.425	74	48	20
0.475	-2.525	0.475	74	47	20
0.425	-2.525	0.475	73	48	20
0.675	-2.475	0.425	83	59	37
0.625	-2.475	0.425	81	56	31
0.675	-2.475	0.475	80	56	34
0.625	-2.475	0.475	77	52	29
0.775	-2.425	0.425	83	61	42
0.725	-2.475	0.425	83	59	37
0.775	-2.425	0.475	85	63	43
0.725	-2.475	0.475	85	63	41
1.175	-2.125	0.425	82	59	37
1.175	-2.175	0.425	80	54	30
1.125	-2.175	0.425	82	58	35
1.125	-2.125	0.425	84	61	39
1.175	-2.125	0.475	83	60	38
1.175	-2.175	0.475	81	56	32
1.125	-2.175	0.475	82	59	37
1.125	-2.125	0.475	85	63	43
0.975	-2.375	0.425	84	59	32
0.975	-2.375	0.475	81	56	30
0.875	-2.425	0.425	85	61	38
0.825	-2.425	0.425	83	61	42
0.875	-2.425	0.475	84	60	38
0.825	-2.425	0.475	85	64	44
1.175	-2.275	0.425	74	46	21
1.175	-2.275	0.475	75	47	21
1.075	-2.375	0.425	76	47	20
1.025	-2.375	0.425	83	57	28
1.075	-2.325	0.475	75	47	19
1.075	-2.375	0.475	74	43	18
1.025	-2.375	0.475	83	56	29
1.175	-2.325	0.425	72	41	16
1.125	-2.325	0.425	72	41	17
1.175	-2.325	0.475	73	43	16
1.125	-2.325	0.475	74	45	18
1.075	-1.925	0.325	72	43	18
1.075	-1.925	0.375	74	46	22
0.475	-2.525	0.325	75	49	22
0.425	-2.525	0.325	68	38	17
0.475	-2.525	0.375	77	51	25
0.425	-2.525	0.375	71	43	19
0.575	-2.475	0.325	72	44	21
0.575	-2.475	0.375	79	52	27
0.675	-2.475	0.325	79	54	28
0.625	-2.475	0.325	78	53	27
0.675	-2.475	0.375	82	58	34
0.625	-2.475	0.375	80	54	29
0.775	-2.425	0.325	79	54	32
0.725	-2.475	0.325	79	54	31
0.775	-2.425	0.375	85	63	42
0.725	-2.475	0.375	83	58	34
1.175	-2.125	0.325	80	54	30
1.175	-2.175	0.325	78	52	27
1.125	-2.175	0.325	79	54	29
1.125	-2.125	0.325	80	55	32
1.175	-2.125	0.375	81	56	33
1.175	-2.175	0.375	79	53	28
1.125	-2.175	0.375	81	56	32
1.125	-2.125	0.375	82	58	35
0.875	-2.425	0.325	78	53	30
0.825	-2.425	0.325	79	55	33
0.875	-2.425	0.375	83	60	36
0.825	-2.425	0.375	85	64	41
0.975	-2.375	0.325	77	48	23
0.975	-2.375	0.375	83	57	30
1.175	-2.275	0.325	72	44	19
1.175	-2.275	0.375	72	44	19
1.075	-2.375	0.325	75	45	18
1.025	-2.375	0.325	78	49	22
1.075	-2.375	0.375	77	48	21
1.025	-2.375	0.375	82	57	29
1.175	-2.325	0.325	73	44	16
1.125	-2.325	0.325	75	44	17
1.175	-2.325	0.375	74	45	19
1.125	-2.325	0.375	73	41	17
1.075	-1.925	0.225	72	44	18
1.075	-1.925	0.275	73	45	20
0.575	-2.475	0.225	72	44	20
0.575	-2.475	0.275	73	44	20
0.675	-2.475	0.225	77	50	24
0.625	-2.475	0.225	79	52	26
0.675	-2.475	0.275	78	52	26
0.625	-2.475	0.275	79	54	28
0.775	-2.425	0.225	79	52	28
0.725	-2.475	0.225	78	53	28
0.775	-2.425	0.275	80	55	31
0.725	-2.475	0.275	79	53	29
1.175	-2.125	0.225	77	50	24
1.175	-2.175	0.225	76	49	23
1.125	-2.175	0.225	77	49	23
1.125	-2.125	0.225	78	52	27
1.175	-2.125	0.275	78	52	26
1.175	-2.175	0.275	77	50	24
1.125	-2.175	0.275	78	51	26
1.125	-2.125	0.275	80	55	31
0.875	-2.425	0.225	78	52	27
0.825	-2.425	0.225	78	52	27
0.875	-2.425	0.275	78	53	29
0.825	-2.425	0.275	81	55	31
0.975	-2.375	0.225	78	50	22
0.975	-2.375	0.275	80	53	26
1.175	-2.275	0.225	74	47	21
1.175	-2.275	0.275	73	45	20
1.075	-2.375	0.225	75	45	17
1.025	-2.375	0.225	79	50	23
1.075	-2.375	0.275	76	45	18
1.025	-2.375	0.275	81	54	26
1.175	-2.325	0.225	74	45	17
1.125	-2.325	0.225	75	44	17
1.175	-2.325	0.275	73	43	17
1.125	-2.325	0.275	76	47	19
1.075	-1.925	0.125	74	46	19
1.075	-1.925	0.175	73	46	20
0.575	-2.475	0.125	73	45	18
0.525	-2.475	0.125	75	50	21
0.575	-2.475	0.175	77	52	25
1.125	-2.075	0.125	80	53	25
0.675	-2.475	0.125	73	43	18
0.625	-2.475	0.125	74	46	19
0.675	-2.475	0.175	78	52	25
0.625	-2.475	0.175	77	50	24
0.775	-2.425	0.125	76	47	20
0.725	-2.475	0.125	75	47	20
0.775	-2.425	0.175	82	57	30
0.725	-2.475	0.175	80	55	26
1.175	-2.125	0.125	76	48	22
1.175	-2.175	0.125	75	47	21
1.125	-2.125	0.125	90	78	63
1.175	-2.125	0.175	78	50	24
1.175	-2.175	0.175	75	47	21
1.125	-2.175	0.175	77	49	23
1.125	-2.125	0.175	79	53	27
0.875	-2.425	0.125	79	54	26
0.825	-2.425	0.125	80	54	26
0.875	-2.425	0.175	83	58	32
0.825	-2.425	0.175	82	57	30
0.975	-2.375	0.125	77	49	20
0.925	-2.375	0.125	78	51	22
0.975	-2.375	0.175	81	54	25
1.175	-2.275	0.125	72	47	20
1.175	-2.275	0.175	73	47	19
1.175	-2.325	0.125	72	43	16
1.125	-2.325	0.125	74	44	17
1.175	-2.325	0.175	73	43	16
1.125	-2.325	0.175	74	45	17
1.075	-2.325	0.125	74	46	18
1.075	-2.375	0.125	76	46	18
1.025	-2.375	0.125	76	49	21
1.075	-2.325	0.175	74	44	16
1.075	-2.375	0.175	77	49	20
1.025	-2.375	0.175	81	54	24
1.075	-1.925	0.025	71	43	17
1.075	-1.925	0.075	73	47	19
0.575	-2.475	0.025	76	51	22
0.525	-2.475	0.025	78	54	24
0.575	-2.475	0.075	75	48	20
0.525	-2.475	0.075	74	47	20
1.175	-2.125	0.025	76	49	20
1.175	-2.175	0.025	75	48	20
1.125	-2.175	0.025	75	48	20
1.125	-2.125	0.025	78	52	23
1.175	-2.125	0.075	76	49	21
1.175	-2.175	0.075	75	47	20
1.125	-2.175	0.075	76	49	21
1.125	-2.125	0.075	78	51	23
0.875	-2.425	0.025	80	54	25
0.825	-2.425	0.025	79	54	25
0.875	-2.425	0.075	80	55	27
0.825	-2.425	0.075	80	54	27
0.775	-2.425	0.025	79	53	24
0.725	-2.475	0.025	78	52	22
0.775	-2.425	0.075	80	54	26
0.725	-2.475	0.075	77	49	21
0.675	-2.475	0.025	78	52	21
0.625	-2.475	0.025	78	51	21
0.675	-2.475	0.075	73	43	18
0.625	-2.475	0.075	74	46	19
1.175	-2.275	0.025	74	48	20
1.175	-2.275	0.075	75	49	20
1.075	-2.325	0.025	72	43	16
1.075	-2.375	0.025	73	42	16
1.025	-2.375	0.025	79	54	26
1.075	-2.325	0.075	73	45	17
1.075	-2.375	0.075	76	48	19
1.025	-2.375	0.075	78	51	23
0.975	-2.375	0.025	80	54	25
0.925	-2.375	0.025	80	54	25
0.975	-2.375	0.075	78	51	22
1.175	-2.325	0.025	73	45	17
1.125	-2.325	0.025	73	45	17
1.175	-2.325	0.075	71	42	16
1.125	-2.325	0.075	73	43	16
1.075	-1.925	-0.075	73	46	18
1.075	-1.925	-0.025	72	45	18
1.175	-2.125	-0.075	74	46	18
1.175	-2.175	-0.075	74	46	19
1.125	-2.175	-0.075	74	46	18
1.125	-2.125	-0.075	74	46	19
1.175	-2.125	-0.025	75	47	19
1.175	-2.175	-0.025	74	47	19
1.125	-2.175	-0.025	74	46	19
1.125	-2.125	-0.025	76	49	21
1.175	-2.275	-0.075	71	44	17
1.175	-2.275	-0.025	73	47	19
1.175	-2.325	-0.075	72	46	18
1.125	-2.325	-0.075	73	45	18
1.175	-2.325	-0.025	64	33	13
1.125	-2.325	-0.025	65	33	12
1.075	-2.325	-0.075	74	46	18
1.075	-2.375	-0.075	75	47	18
1.025	-2.375	-0.075	77	51	20
1.075	-2.325	-0.025	65	32	12
1.075	-2.375	-0.025	68	36	14
1.025	-2.375	-0.025	77	50	22
0.975	-2.375	-0.075	75	47	20
0.925	-2.375	-0.075	75	48	20
0.975	-2.375	-0.025	77	51	23
0.925	-2.375	-0.025	78	51	23
0.875	-2.425	-0.075	74	45	18
0.825	-2.425	-0.075	74	47	19
0.875	-2.425	-0.025	77	50	23
0.825	-2.425	-0.025	77	49	22
0.775	-2.425	-0.075	73	44	18
0.725	-2.475	-0.075	74	46	17
0.775	-2.425	-0.025	76	50	22
0.725	-2.475	-0.025	75	47	19
0.675	-2.475	-0.075	73	45	18
0.625	-2.475	-0.075	74	47	19
0.675	-2.475	-0.025	74	46	19
0.625	-2.475	-0.025	78	52	22
0.575	-2.475	-0.075	74	47	20
0.525	-2.475	-0.075	74	49	20
0.575	-2.475	-0.025	76	49	20
0.525	-2.475	-0.025	76	50	21
1.175	-2.275	-0.175	68	39	15
1.175	-2.275	-0.125	70	42	16
1.175	-2.325	-0.175	71	45	17
1.125	-2.325	-0.175	73	48	19
1.175	-2.325	-0.125	72	45	17
1.125	-2.325	-0.125	73	48	20
1.075	-2.325	-0.175	73	47	19
1.075	-2.375	-0.175	74	48	19
1.025	-2.375	-0.175	75	49	21
1.075	-2.325	-0.125	74	48	20
1.075	-2.375	-0.125	74	47	18
1.025	-2.375	-0.125	77	51	22
1.175	-2.175	-0.175	71	42	16
1.125	-2.175	-0.175	72	44	17
1.125	-2.125	-0.175	72	43	16
1.175	-2.175	-0.125	72	45	18
1.125	-2.175	-0.125	72	43	17
1.125	-2.125	-0.125	73	45	17
0.975	-2.375	-0.175	76	50	21
0.925	-2.375	-0.175	72	43	16
0.975	-2.375	-0.125	78	52	22
0.925	-2.375	-0.125	73	45	17
0.875	-2.425	-0.175	71	42	16
0.825	-2.425	-0.175	72	43	16
0.875	-2.425	-0.125	74	47	18
0.825	-2.425	-0.125	73	44	16
0.775	-2.425	-0.175	72	43	16
0.725	-2.475	-0.175	69	41	15
0.775	-2.425	-0.125	73	44	15
0.725	-2.475	-0.125	73	43	16
0.675	-2.475	-0.175	68	37	14
0.625	-2.475	-0.175	73	49	21
0.675	-2.475	-0.125	72	44	16
0.625	-2.475	-0.125	74	49	22
0.575	-2.475	-0.175	73	47	21
0.525	-2.475	-0.175	70	42	15
0.575	-2.475	-0.125	74	47	19
0.525	-2.475	-0.125	71	44	18
1.175	-2.225	-0.275	124	77	36
1.175	-2.275	-0.275	116	71	28
1.125	-2.275	-0.275	123	75	33
1.125	-2.225	-0.275	125	80	42
1.175	-2.275	-0.225	65	35	13
1.175	-2.325	-0.275	93	55	21
1.125	-2.325	-0.275	105	63	22
1.175	-2.325	-0.225	66	36	13
1.125	-2.325	-0.225	67	37	14
1.075	-2.325	-0.275	110	67	25
1.025	-2.375	-0.275	102	61	24
1.025	-2.325	-0.275	126	81	32
1.075	-2.325	-0.225	70	43	16
1.075	-2.375	-0.225	73	48	20
1.025	-2.375	-0.225	73	48	20
0.975	-2.325	-0.275	113	67	25
0.975	-2.375	-0.275	106	62	24
0.925	-2.375	-0.275	109	66	26
0.925	-2.325	-0.275	126	78	32
0.975	-2.375	-0.225	70	41	17
0.925	-2.375	-0.225	71	41	16
1.175	-2.175	-0.275	115	77	43
1.125	-2.175	-0.275	131	90	50
1.125	-2.125	-0.275	131	91	49
1.175	-2.175	-0.225	68	39	15
1.125	-2.175	-0.225	72	44	18
1.125	-2.125	-0.225	73	46	18
0.875	-2.325	-0.275	130	82	35
0.875	-2.375	-0.275	126	76	30
0.825	-2.375	-0.275	125	75	29
0.825	-2.325	-0.275	132	85	37
0.875	-2.425	-0.275	107	68	27
0.825	-2.425	-0.275	109	67	26
0.875	-2.425	-0.225	74	47	19
0.825	-2.425	-0.225	76	50	21
0.775	-2.425	-0.275	122	73	29
0.725	-2.425	-0.275	114	69	28
0.775	-2.425	-0.225	75	49	19
0.675	-2.425	-0.275	115	69	28
0.675	-2.475	-0.275	98	62	25
0.625	-2.475	-0.275	111	66	26
0.625	-2.425	-0.275	127	77	32
0.675	-2.475	-0.225	75	50	21
0.625	-2.475	-0.225	71	42	16
0.575	-2.425	-0.275	132	83	38
0.575	-2.475	-0.275	128	79	33
0.525	-2.475	-0.275	106	64	27
0.525	-2.425	-0.275	136	91	45
0.575	-2.475	-0.225	70	41	16
0.525	-2.475	-0.225	69	40	15
0.475	-2.425	-0.275	138	93	46
0.475	-2.475	-0.275	116	75	32
0.425	-2.475	-0.275	134	89	41
0.425	-2.425	-0.275	140	98	55
1.025	-1.975	-0.275	76	49	21
1.075	-2.225	-0.275	122	73	31
1.075	-2.275	-0.275	123	77	30
1.025	-2.275	-0.275	129	84	36
1.025	-2.225	-0.275	125	77	32
3.075	-1.325	-0.325	155	155	155
2.975	-1.425	-0.325	155	155	155
2.925	-1.475	-0.325	155	155	155
1.075	-2.125	-0.275	124	78	31
1.075	-2.175	-0.275	125	78	32
1.025	-2.175	-0.275	124	76	30
0.975	-2.225	-0.275	127	80	34
0.975	-2.275	-0.275	129	84	36
0.925	-2.275	-0.275	132	87	39
0.925	-2.225	-0.275	128	81	35
2.975	-1.275	-0.325	155	155	155
0.975	-2.175	-0.275	126	79	32
0.925	-2.175	-0.275	130	84	37
0.875	-2.225	-0.275	132	87	40
0.875	-2.275	-0.275	134	89	40
0.825	-2.275	-0.275	135	91	43
0.825	-2.225	-0.275	135	91	44
0.775	-2.325	-0.275	135	88	40
0.775	-2.375	-0.275	130	81	34
0.725	-2.375	-0.275	128	80	33
0.725	-2.325	-0.275	136	89	43
0.675	-2.325	-0.275	137	91	46
0.675	-2.375	-0.275	132	83	36
0.625	-2.375	-0.275	134	85	39
0.625	-2.325	-0.275	138	94	50
0.875	-2.175	-0.275	131	86	38
0.775	-2.225	-0.275	136	93	46
0.775	-2.275	-0.275	135	91	45
0.725	-2.275	-0.275	136	93	50
0.725	-2.225	-0.275	136	92	49
0.675	-2.275	-0.275	137	95	53
0.625	-2.275	-0.275	141	101	63
0.575	-2.325	-0.275	145	109	74
0.575	-2.375	-0.275	141	99	57
0.525	-2.375	-0.275	144	103	65
0.525	-2.325	-0.275	149	117	87
0.975	-1.975	-0.275	80	54	27
0.925	-1.975	-0.275	80	55	29
0.875	-2.025	-0.275	77	51	22
0.825	-2.025	-0.275	83	60	39
0.475	-2.325	-0.275	153	124	96
0.475	-2.375	-0.275	145	107	72
0.425	-2.375	-0.275	147	111	79
0.425	-2.325	-0.275	155	131	104
0.875	-1.975	-0.275	81	56	32
0.775	-2.025	-0.275	90	73	57
0.725	-2.025	-0.275	89	73	58
0.675	-2.075	-0.275	90	77	61
0.625	-2.075	-0.275	91	79	64
1.275	-2.275	-0.325	154	154	154
0.475	-2.125	-0.275	81	56	32
0.425	-2.125	-0.275	77	51	25
0.575	-2.075	-0.275	86	67	49
0.525	-2.075	-0.275	83	61	41
0.475	-2.075	-0.275	80	54	30
0.375	-2.125	-0.275	77	52	26
1.175	-2.025	-0.325	154	154	154
1.125	-2.075	-0.325	133	126	120
1.125	-2.025	-0.325	154	154	154
1.075	-1.925	-0.325	71	45	20
1.075	-1.975	-0.325	156	153	150
1.025	-1.975	-0.325	71	50	30
1.025	-1.925	-0.325	69	43	16
0.975	-1.925	-0.325	79	79	79
0.975	-1.975	-0.325	70	43	17
0.925	-1.975	-0.325	68	39	16
0.925	-1.925	-0.325	80	80	80
0.875	-1.925	-0.325	80	80	80
0.875	-1.975	-0.325	74	48	20
0.825	-1.975	-0.325	79	79	79
0.825	-1.925	-0.325	80	80	80
0.975	-1.825	-0.325	80	80	80
0.975	-1.875	-0.325	80	80	80
0.925	-1.875	-0.325	80	80	80
0.925	-1.825	-0.325	80	80	80
0.775	-1.925	-0.325	80	80	80
0.775	-1.975	-0.325	79	79	79
0.725	-1.975	-0.325	80	80	80
0.725	-1.925	-0.325	80	80	80
0.775	-2.025	-0.325	73	47	21
0.725	-2.025	-0.325	73	45	18
0.675	-2.025	-0.325	74	51	28
0.675	-2.075	-0.325	73	46	18
0.625	-2.075	-0.325	73	46	18
0.625	-2.025	-0.325	79	79	79
0.875	-1.825	-0.325	80	80	80
0.875	-1.875	-0.325	80	80	80
0.825	-1.875	-0.325	80	80	80
0.825	-1.825	-0.325	80	80	80
0.575	-2.025	-0.325	80	79	79
0.575	-2.075	-0.325	71	43	17
0.525	-2.075	-0.325	70	41	16
0.525	-2.025	-0.325	80	80	80
0.675	-1.925	-0.325	80	80	80
0.675	-1.975	-0.325	80	80	80
0.625	-1.975	-0.325	80	80	80
0.625	-1.925	-0.325	80	80	80
0.875	-1.725	-0.325	80	80	80
0.875	-1.775	-0.325	80	80	80
0.825	-1.775	-0.325	80	80	80
0.825	-1.725	-0.325	80	80	80
0.775	-1.825	-0.325	80	80	80
0.775	-1.875	-0.325	80	80	80
0.725	-1.875	-0.325	80	80	80
0.725	-1.825	-0.325	80	80	80
0.475	-2.025	-0.325	80	80	80
0.475	-2.075	-0.325	77	72	68
0.425	-2.025	-0.325	80	80	80
0.675	-1.825	-0.325	80	80	80
0.675	-1.875	-0.325	80	80	80
0.625	-1.875	-0.325	80	80	80
0.625	-1.825	-0.325	80	80	80
0.575	-1.925	-0.325	80	80	80
0.575	-1.975	-0.325	80	80	80
0.525	-1.975	-0.325	80	80	80
0.525	-1.925	-0.325	80	80	80
0.475	-2.125	-0.325	68	38	15
0.425	-2.125	-0.325	69	40	16
0.375	-2.125	-0.325	69	43	19
0.325	-2.125	-0.325	66	35	14
0.775	-1.725	-0.325	80	80	80
0.775	-1.775	-0.325	80	80	80
0.725	-1.775	-0.325	80	80	80
0.725	-1.725	-0.325	80	80	80
0.875	-1.625	-0.325	80	80	80
0.875	-1.675	-0.325	80	80	80
0.825	-1.675	-0.325	80	80	80
0.825	-1.625	-0.325	80	80	80
0.375	-2.025	-0.325	80	80	80
0.325	-2.075	-0.325	80	80	80
0.325	-2.025	-0.325	80	80	80
0.575	-1.825	-0.325	80	80	80
0.575	-1.875	-0.325	80	80	80
0.525	-1.875	-0.325	80	80	80
0.525	-1.825	-0.325	80	80	80
0.475	-1.925	-0.325	80	80	80
0.475	-1.975	-0.325	80	80	80
0.425	-1.975	-0.325	80	80	80
0.425	-1.925	-0.325	80	80	80
0.675	-1.725	-0.325	80	80	80
0.625	-1.775	-0.325	80	80	80
0.625	-1.725	-0.325	80	80	80
0.775	-1.625	-0.325	80	80	80
0.775	-1.675	-0.325	80	80	80
0.725	-1.675	-0.325	80	80	80
0.725	-1.625	-0.325	80	80	80
0.375	-1.925	-0.325	80	80	80
0.375	-1.975	-0.325	80	80	80
0.325	-1.975	-0.325	80	80	80
0.325	-1.925	-0.325	80	80	80
0.575	-1.725	-0.325	80	80	80
0.575	-1.775	-0.325	80	80	80
0.525	-1.775	-0.325	80	80	80
0.525	-1.725	-0.325	80	80	80
0.475	-1.825	-0.325	80	80	80
0.475	-1.875	-0.325	80	80	80
0.425	-1.875	-0.325	80	80	80
0.425	-1.825	-0.325	80	80	80
0.675	-1.625	-0.325	80	80	80
0.675	-1.675	-0.325	80	80	80
0.625	-1.675	-0.325	80	80	80
0.775	-1.525	-0.325	80	80	80
0.725	-1.525	-0.325	80	80	80
0.375	-1.825	-0.325	80	80	80
0.375	-1.875	-0.325	80	80	80
0.325	-1.875	-0.325	80	80	80
0.325	-1.825	-0.325	80	80	80
0.575	-1.675	-0.325	80	80	80
0.525	-1.675	-0.325	80	80	80
0.475	-1.725	-0.325	80	80	80
0.475	-1.775	-0.325	80	80	80
0.425	-1.725	-0.325	80	80	80
0.675	-1.525	-0.325	80	80	80
0.625	-1.575	-0.325	80	80	80
0.625	-1.525	-0.325	80	80	80
0.775	-1.425	-0.325	80	80	80
0.775	-1.475	-0.325	80	80	80
0.725	-1.475	-0.325	80	80	80
0.725	-1.425	-0.325	80	80	80
0.475	-1.675	-0.325	80	80	80
0.425	-1.675	-0.325	80	80	80
0.375	-1.725	-0.325	80	80	80
0.375	-1.775	-0.325	80	80	80
0.325	-1.775	-0.325	80	80	80
0.325	-1.725	-0.325	80	80	80
0.575	-1.525	-0.325	80	80	80
0.575	-1.575	-0.325	80	80	80
0.525	-1.525	-0.325	80	80	80
0.675	-1.425	-0.325	80	80	80
0.675	-1.475	-0.325	80	80	80
0.625	-1.475	-0.325	80	80	80
0.625	-1.425	-0.325	80	80	80
0.475	-1.525	-0.325	80	80	80
0.425	-1.525	-0.325	80	80	80
0.375	-1.675	-0.325	80	80	80
0.325	-1.675	-0.325	80	80	80
0.575	-1.425	-0.325	80	80	80
0.575	-1.475	-0.325	80	80	80
0.525	-1.475	-0.325	80	80	80
0.525	-1.425	-0.325	80	80	80
0.675	-1.325	-0.325	148	148	148
0.675	-1.375	-0.325	80	80	80
0.625	-1.375	-0.325	80	80	80
0.625	-1.325	-0.325	152	152	152
0.375	-1.525	-0.325	80	80	80
0.325	-1.525	-0.325	80	80	80
0.475	-1.425	-0.325	80	80	80
0.475	-1.475	-0.325	80	80	80
0.425	-1.475	-0.325	80	80	80
0.425	-1.425	-0.325	80	80	80
0.575	-1.325	-0.325	155	155	155
0.575	-1.375	-0.325	80	80	80
0.525	-1.375	-0.325	136	136	136
0.525	-1.325	-0.325	155	155	155
0.275	-1.625	-0.325	80	80	80
0.275	-1.675	-0.325	80	80	80
0.225	-1.675	-0.325	80	80	80
0.225	-1.625	-0.325	80	80	80
0.675	-1.225	-0.325	155	155	155
0.675	-1.275	-0.325	155	155	155
0.625	-1.275	-0.325	155	155	155
0.625	-1.225	-0.325	155	155	155
0.275	-1.525	-0.325	80	80	80
0.275	-1.575	-0.325	80	80	80
0.225	-1.575	-0.325	80	80	80
0.225	-1.525	-0.325	80	80	80
0.375	-1.425	-0.325	89	89	89
0.375	-1.475	-0.325	80	80	80
0.325	-1.475	-0.325	80	80	80
0.325	-1.425	-0.325	80	80	80
0.475	-1.325	-0.325	155	155	155
0.475	-1.375	-0.325	135	135	135
0.425	-1.375	-0.325	154	154	154
0.425	-1.325	-0.325	155	155	155
0.575	-1.225	-0.325	155	155	155
0.575	-1.275	-0.325	155	155	155
0.525	-1.275	-0.325	155	155	155
0.525	-1.225	-0.325	155	155	155
0.275	-1.425	-0.325	110	110	110
0.275	-1.475	-0.325	80	80	80
0.225	-1.475	-0.325	80	80	80
0.225	-1.425	-0.325	155	155	155
0.375	-1.325	-0.325	155	155	155
0.375	-1.375	-0.325	155	155	155
0.325	-1.375	-0.325	155	155	155
0.325	-1.325	-0.325	155	155	155
0.475	-1.225	-0.325	155	155	155
0.475	-1.275	-0.325	155	155	155
0.425	-1.275	-0.325	155	155	155
0.425	-1.225	-0.325	155	155	155
0.575	-1.125	-0.325	155	155	155
0.575	-1.175	-0.325	155	155	155
0.525	-1.175	-0.325	155	155	155
0.525	-1.125	-0.325	155	155	155
0.275	-1.325	-0.325	155	155	155
0.275	-1.375	-0.325	155	155	155
0.225	-1.375	-0.325	155	155	155
0.225	-1.325	-0.325	155	155	155
0.375	-1.225	-0.325	155	155	155
0.375	-1.275	-0.325	155	155	155
0.325	-1.275	-0.325	155	155	155
0.325	-1.225	-0.325	155	155	155
0.475	-1.125	-0.325	155	155	155
0.475	-1.175	-0.325	155	155	155
0.425	-1.175	-0.325	155	155	155
0.425	-1.125	-0.325	155	155	155
0.275	-1.225	-0.325	155	155	155
0.275	-1.275	-0.325	155	155	155
0.225	-1.275	-0.325	155	155	155
0.225	-1.225	-0.325	155	155	155
0.375	-1.125	-0.325	155	155	155
0.375	-1.175	-0.325	155	155	155
0.325	-1.175	-0.325	155	155	155
0.325	-1.125	-0.325	155	155	155
0.475	-1.025	-0.325	155	155	155
0.475	-1.075	-0.325	155	155	155
0.425	-1.075	-0.325	155	155	155
0.425	-1.025	-0.325	155	155	155
0.275	-1.125	-0.325	155	155	155
0.275	-1.175	-0.325	155	155	155
0.225	-1.175	-0.325	155	155	155
0.225	-1.125	-0.325	155	155	155
0.375	-1.025	-0.325	155	155	155
0.375	-1.075	-0.325	155	155	155
0.325	-1.075	-0.325	155	155	155
0.325	-1.025	-0.325	155	155	155
0.475	-0.925	-0.325	155	155	155
0.475	-0.975	-0.325	155	155	155
0.425	-0.975	-0.325	155	155	155
0.425	-0.925	-0.325	155	155	155
0.275	-1.025	-0.325	155	155	155
0.275	-1.075	-0.325	155	155	155
0.225	-1.075	-0.325	155	155	155
0.225	-1.025	-0.325	155	155	155
0.375	-0.925	-0.325	155	155	155
0.375	-0.975	-0.325	155	155	155
0.325	-0.975	-0.325	155	155	155
0.325	-0.925	-0.325	155	155	155
0.175	-1.025	-0.325	155	155	155
0.175	-1.075	-0.325	155	155	155
0.125	-1.075	-0.325	155	155	155
0.125	-1.025	-0.325	155	155	155
0.275	-0.925	-0.325	155	155	155
0.275	-0.975	-0.325	155	155	155
0.225	-0.975	-0.325	155	155	155
0.225	-0.925	-0.325	155	155	155
0.375	-0.825	-0.325	155	155	155
0.375	-0.875	-0.325	155	155	155
0.325	-0.875	-0.325	155	155	155
0.325	-0.825	-0.325	155	155	155
0.175	-0.925	-0.325	155	155	155
0.175	-0.975	-0.325	155	155	155
0.125	-0.975	-0.325	155	155	155
0.125	-0.925	-0.325	155	155	155
0.275	-0.825	-0.325	155	155	155
0.275	-0.875	-0.325	155	155	155
0.225	-0.875	-0.325	155	155	155
0.225	-0.825	-0.325	155	155	155
0.375	-0.725	-0.325	155	155	155
0.375	-0.775	-0.325	155	155	155
0.325	-0.775	-0.325	155	155	155
0.325	-0.725	-0.325	155	155	155
0.175	-0.825	-0.325	155	155	155
0.175	-0.875	-0.325	155	155	155
0.125	-0.875	-0.325	155	155	155
0.125	-0.825	-0.325	155	155	155
0.275	-0.725	-0.325	155	155	155
0.275	-0.775	-0.325	155	155	155
0.225	-0.775	-0.325	155	155	155
0.225	-0.725	-0.325	155	155	155
0.375	-0.625	-0.325	155	155	155
0.375	-0.675	-0.325	155	155	155
0.325	-0.675	-0.325	155	155	155
0.475	-0.575	-0.325	155	155	155
0.425	-0.575	-0.325	155	155	155
1.075	-1.925	0.725	77	51	26
1.075	-1.925	0.775	74	49	23
1.075	-1.925	0.625	76	50	23
1.075	-1.925	0.675	75	51	24
-0.625	-3.375	1.325	92	91	90
-0.625	-3.375	1.225	103	103	102
-0.675	-3.325	1.225	98	98	97
-0.625	-3.375	1.275	95	94	93
-0.675	-3.325	1.275	94	93	92
-0.675	-3.275	1.225	96	96	96
-0.675	-3.275	1.275	91	90	90
-0.675	-3.225	1.275	107	107	107
-0.675	-3.275	1.125	97	94	92
-0.675	-3.275	1.175	95	92	92
-0.625	-3.375	1.125	101	100	102
-0.675	-3.325	1.125	100	100	100
-0.625	-3.375	1.175	99	98	98
-0.675	-3.325	1.175	100	98	95
-0.675	-3.275	1.025	80	81	84
-0.675	-3.275	1.075	95	95	97
0.225	-2.375	0.875	75	51	26
0.375	-2.325	0.875	74	46	18
-0.625	-3.375	1.025	87	88	88
-0.675	-3.325	1.025	77	78	79
-0.625	-3.375	1.075	87	85	84
-0.675	-3.325	1.075	87	86	85
0.375	-2.475	0.875	74	48	19
0.225	-2.425	0.825	96	77	60
0.225	-2.425	0.875	75	49	25
0.375	-2.575	0.825	73	48	21
0.325	-2.575	0.825	71	45	20
0.325	-2.525	0.825	72	46	20
0.375	-2.525	0.875	70	43	15
0.375	-2.575	0.875	73	46	18
0.325	-2.575	0.875	72	45	17
0.325	-2.525	0.875	70	42	16
-0.675	-3.275	0.925	96	96	97
-0.675	-3.275	0.975	84	83	81
0.525	-2.525	0.825	81	57	31
0.525	-2.525	0.875	80	56	30
0.925	-2.425	0.825	85	64	47
0.925	-2.425	0.875	83	61	42
-0.625	-3.375	0.925	99	98	97
-0.675	-3.325	0.925	98	97	98
-0.625	-3.375	0.975	105	105	106
-0.675	-3.325	0.975	104	104	103
0.225	-2.425	0.725	96	76	58
0.225	-2.425	0.775	96	77	59
0.375	-2.575	0.725	74	50	23
0.325	-2.575	0.725	70	44	20
0.325	-2.525	0.725	74	47	21
0.375	-2.575	0.775	72	48	21
0.325	-2.575	0.775	72	48	22
0.325	-2.525	0.775	73	46	20
0.525	-2.525	0.725	79	55	29
0.525	-2.525	0.775	78	53	27
-0.675	-3.275	0.825	98	97	96
-0.675	-3.275	0.875	100	100	100
0.925	-2.425	0.725	86	65	47
0.925	-2.425	0.775	83	62	46
-0.625	-3.375	0.825	100	99	99
-0.675	-3.325	0.825	99	98	97
-0.625	-3.375	0.875	96	93	92
-0.675	-3.325	0.875	95	94	94
0.225	-2.425	0.625	94	73	53
0.225	-2.425	0.675	92	68	47
0.325	-2.575	0.625	73	48	21
0.325	-2.525	0.625	74	47	22
0.325	-2.575	0.675	75	53	25
0.325	-2.525	0.675	78	54	28
-0.675	-3.275	0.725	108	107	105
-0.675	-3.275	0.775	90	85	85
0.525	-2.525	0.625	79	54	28
0.525	-2.525	0.675	77	51	27
0.925	-2.425	0.625	83	60	42
0.925	-2.425	0.675	84	62	44
-0.625	-3.375	0.725	105	104	105
-0.675	-3.325	0.725	101	98	98
-0.625	-3.375	0.775	95	94	96
-0.675	-3.325	0.775	107	106	106
0.225	-2.425	0.575	90	68	48
-0.675	-3.275	0.625	78	80	83
-0.675	-3.275	0.675	88	87	89
0.375	-2.525	0.575	77	53	27
0.325	-2.575	0.575	73	49	22
-0.625	-3.375	0.625	87	87	88
-0.675	-3.325	0.625	74	74	77
-0.625	-3.375	0.675	85	85	84
-0.675	-3.325	0.675	86	85	84
0.525	-2.525	0.575	81	56	31
0.925	-2.425	0.575	83	59	36
0.275	-2.175	0.475	74	48	20
0.375	-2.325	0.475	74	46	18
-0.675	-3.275	0.525	86	86	86
-0.675	-3.275	0.575	79	75	75
-0.625	-3.375	0.525	105	102	101
-0.675	-3.325	0.525	99	96	96
-0.625	-3.375	0.575	100	99	100
-0.675	-3.325	0.575	104	103	103
0.375	-2.475	0.475	73	47	18
0.225	-2.425	0.425	90	65	43
0.225	-2.425	0.475	75	50	25
0.325	-2.575	0.425	71	44	19
0.325	-2.525	0.425	72	45	19
0.325	-2.575	0.475	70	43	17
0.325	-2.525	0.475	72	45	19
0.525	-2.525	0.425	79	54	26
0.525	-2.525	0.475	78	52	25
-0.675	-3.275	0.425	103	103	103
-0.675	-3.275	0.475	100	100	99
-0.625	-3.375	0.425	108	108	109
-0.675	-3.325	0.425	111	110	111
-0.625	-3.375	0.475	101	103	100
-0.675	-3.325	0.475	92	91	90
0.225	-2.425	0.325	87	60	34
0.225	-2.425	0.375	89	62	38
0.325	-2.575	0.325	70	43	18
0.325	-2.525	0.325	66	36	15
0.325	-2.575	0.375	72	47	21
0.325	-2.525	0.375	71	44	19
0.525	-2.525	0.325	72	43	19
0.525	-2.525	0.375	78	52	24
-0.675	-3.275	0.325	104	100	100
-0.675	-3.275	0.375	78	76	75
-0.625	-3.375	0.325	88	83	83
-0.675	-3.325	0.325	86	84	81
-0.625	-3.375	0.375	98	97	97
-0.675	-3.325	0.375	104	100	98
0.225	-2.425	0.225	85	57	28
0.225	-2.425	0.275	86	57	30
0.325	-2.575	0.225	69	41	17
0.325	-2.525	0.225	70	42	17
0.325	-2.575	0.275	70	43	18
0.325	-2.525	0.275	69	39	17
0.525	-2.525	0.225	72	43	19
0.525	-2.525	0.275	73	45	20
0.475	-2.525	0.225	72	43	18
0.425	-2.525	0.225	71	43	18
0.475	-2.525	0.275	72	43	18
0.425	-2.525	0.275	71	42	17
-0.675	-3.275	0.225	105	101	102
-0.675	-3.275	0.275	100	99	99
-0.625	-3.375	0.225	97	95	94
-0.675	-3.325	0.225	105	104	104
-0.625	-3.375	0.275	80	80	82
-0.675	-3.325	0.275	86	86	86
0.275	-2.175	0.125	73	47	20
0.225	-2.425	0.125	85	58	27
0.225	-2.425	0.175	86	57	28
0.375	-2.525	0.125	73	48	21
0.325	-2.575	0.125	70	45	19
0.325	-2.525	0.125	74	49	21
0.325	-2.575	0.175	72	48	21
0.325	-2.525	0.175	74	50	22
0.525	-2.525	0.125	74	48	19
0.525	-2.525	0.175	78	52	26
0.475	-2.525	0.125	75	50	21
0.425	-2.525	0.125	75	50	22
0.475	-2.525	0.175	76	51	24
0.425	-2.525	0.175	75	50	21
-0.675	-3.275	0.125	97	96	95
-0.675	-3.275	0.175	94	94	93
-0.625	-3.375	0.125	84	81	81
-0.675	-3.325	0.125	88	84	85
-0.625	-3.375	0.175	107	106	106
-0.675	-3.325	0.175	103	102	102
0.225	-2.425	0.025	84	56	26
0.225	-2.425	0.075	85	57	26
0.525	-2.525	0.025	76	50	21
0.525	-2.525	0.075	75	49	20
0.475	-2.525	0.025	77	51	22
0.425	-2.525	0.025	75	50	21
0.475	-2.525	0.075	75	49	20
0.425	-2.525	0.075	75	49	21
0.375	-2.525	0.025	73	48	19
0.325	-2.575	0.025	72	47	20
0.325	-2.525	0.025	73	50	20
0.375	-2.525	0.075	72	48	21
0.325	-2.575	0.075	72	48	21
0.325	-2.525	0.075	73	49	21
-0.625	-3.375	0.025	102	100	99
-0.675	-3.325	0.025	90	89	92
-0.625	-3.375	0.075	98	98	99
-0.675	-3.325	0.075	95	92	91
-0.675	-3.275	0.025	95	92	90
-0.675	-3.275	0.075	100	99	97
0.525	-2.525	-0.075	74	48	20
0.525	-2.525	-0.025	75	49	20
0.475	-2.525	-0.075	73	47	19
0.425	-2.525	-0.075	71	45	18
0.475	-2.525	-0.025	75	50	21
0.425	-2.525	-0.025	73	47	19
0.375	-2.525	-0.075	70	45	18
0.325	-2.575	-0.075	70	44	18
0.325	-2.525	-0.075	72	47	18
0.375	-2.525	-0.025	71	46	20
0.325	-2.575	-0.025	69	43	18
0.325	-2.525	-0.025	71	47	21
0.225	-2.425	-0.075	80	50	21
0.225	-2.425	-0.025	82	53	24
-0.625	-3.375	-0.075	87	86	85
-0.675	-3.325	-0.075	99	99	99
-0.625	-3.375	-0.025	96	94	95
-0.675	-3.325	-0.025	97	95	95
-0.675	-3.275	-0.075	102	101	102
-0.675	-3.275	-0.025	93	92	92
-0.625	-3.375	-0.175	97	95	94
-0.675	-3.325	-0.175	101	100	98
-0.625	-3.375	-0.125	99	94	93
-0.675	-3.325	-0.125	94	90	90
-0.675	-3.275	-0.175	82	80	79
-0.675	-3.275	-0.125	100	98	98
0.525	-2.525	-0.175	70	43	16
0.525	-2.525	-0.125	72	45	18
0.475	-2.525	-0.175	72	45	18
0.425	-2.525	-0.175	70	45	17
0.475	-2.525	-0.125	70	42	15
0.425	-2.525	-0.125	69	40	14
0.375	-2.525	-0.175	69	44	18
0.325	-2.575	-0.175	68	44	18
0.325	-2.525	-0.175	69	45	19
0.375	-2.525	-0.125	67	38	14
0.325	-2.575	-0.125	65	37	15
0.325	-2.525	-0.125	67	38	15
0.225	-2.425	-0.175	77	47	19
0.225	-2.425	-0.125	78	48	19
-0.625	-3.375	-0.275	105	103	102
-0.675	-3.325	-0.275	104	102	101
-0.625	-3.375	-0.225	92	90	89
-0.675	-3.325	-0.225	95	92	91
-0.675	-3.275	-0.275	99	97	97
-0.675	-3.275	-0.225	100	98	96
0.475	-2.525	-0.275	104	63	26
0.425	-2.525	-0.275	106	64	27
0.475	-2.525	-0.225	69	40	15
0.425	-2.525	-0.225	67	39	15
0.375	-2.525	-0.275	103	62	26
0.325	-2.575	-0.275	82	45	19
0.325	-2.525	-0.275	128	81	35
0.375	-2.525	-0.225	65	37	14
0.325	-2.575	-0.225	64	36	15
0.325	-2.525	-0.225	66	38	15
0.375	-2.425	-0.275	141	100	61
0.375	-2.475	-0.275	135	91	44
0.325	-2.475	-0.275	135	91	48
0.325	-2.425	-0.275	142	103	68
0.375	-2.475	-0.225	139	96	54
0.275	-2.425	-0.275	136	96	61
0.225	-2.425	-0.225	77	47	19
0.275	-2.325	-0.275	158	138	113
0.275	-2.375	-0.275	148	118	87
0.275	-2.125	-0.275	78	54	27
0.275	-2.175	-0.275	74	49	22
0.225	-2.175	-0.275	75	51	24
0.275	-2.175	-0.225	79	50	22
0.175	-2.175	-0.275	73	46	20
-0.625	-3.325	-0.325	93	91	92
-0.625	-3.375	-0.325	92	91	91
-0.675	-3.325	-0.325	96	94	93
-0.675	-3.275	-0.325	97	96	96
-0.675	-3.225	-0.325	86	85	85
2.575	-2.325	-0.325	155	155	155
2.425	-2.375	-0.325	155	155	155
2.225	-2.325	-0.325	155	155	155
1.475	-2.675	-0.325	168	165	162
0.375	-2.325	-0.275	156	136	110
0.375	-2.375	-0.275	150	119	90
0.325	-2.375	-0.275	153	126	99
0.325	-2.325	-0.275	158	137	112
0.375	-2.325	-0.225	149	117	86
-0.075	-3.175	-0.325	155	155	155
-0.225	-3.175	-0.325	155	155	155
-0.275	-3.275	-0.325	155	155	155
-0.525	-3.225	-0.325	131	131	131
2.375	-2.275	-0.325	155	155	155
0.275	-2.925	-0.325	155	155	155
2.375	-2.125	-0.325	155	155	155
0.275	-2.875	-0.325	155	155	155
-0.675	-3.175	-0.325	149	149	149
1.375	-2.475	-0.325	143	140	137
0.275	-2.725	-0.325	155	155	155
0.225	-2.725	-0.325	155	155	155
0.275	-2.625	-0.325	155	155	155
0.225	-2.625	-0.325	155	155	155
0.125	-2.625	-0.325	155	155	155
0.275	-2.525	-0.325	155	155	155
0.225	-2.575	-0.325	155	155	155
0.175	-2.575	-0.325	155	155	155
-0.125	-2.675	-0.325	155	155	155
0.075	-2.575	-0.325	155	155	155
-0.275	-2.675	-0.325	155	155	155
-0.275	-2.625	-0.325	155	155	155
0.225	-2.475	-0.325	155	155	155
0.225	-2.425	-0.325	155	155	155
0.175	-2.425	-0.325	155	155	155
0.125	-2.425	-0.325	155	155	155
-0.075	-2.525	-0.325	155	155	155
0.075	-2.425	-0.325	155	155	155
-0.225	-2.525	-0.325	155	155	155
1.175	-2.175	-0.325	132	125	120
0.225	-2.375	-0.325	151	151	151
0.175	-2.325	-0.325	84	84	84
0.175	-2.375	-0.325	133	133	133
-0.125	-2.425	-0.325	155	155	155
0.075	-2.325	-0.325	155	155	155
0.025	-2.375	-0.325	155	155	155
0.025	-2.325	-0.325	155	155	155
-0.225	-2.475	-0.325	155	155	155
-0.275	-2.475	-0.325	155	155	155
-0.025	-2.325	-0.325	155	155	155
-0.025	-2.375	-0.325	155	155	155
-0.375	-2.475	-0.325	155	155	155
-0.375	-2.425	-0.325	155	155	155
0.225	-2.275	-0.325	81	81	81
0.225	-2.225	-0.325	80	80	80
0.175	-2.225	-0.325	80	80	80
0.125	-2.275	-0.325	80	80	80
-0.125	-2.325	-0.325	155	155	155
-0.425	-2.425	-0.325	155	155	155
0.875	-2.025	-0.325	75	55	35
0.825	-2.025	-0.325	70	41	17
0.075	-2.225	-0.325	153	153	153
0.025	-2.225	-0.325	155	155	155
-0.225	-2.375	-0.325	155	155	155
-0.275	-2.375	-0.325	155	155	155
-0.525	-2.475	-0.325	155	155	155
0.275	-2.125	-0.325	68	45	26
0.275	-2.175	-0.325	69	47	27
0.225	-2.175	-0.325	66	39	15
0.225	-2.125	-0.325	79	79	79
0.175	-2.125	-0.325	80	80	80
0.175	-2.175	-0.325	65	39	16
0.125	-2.175	-0.325	79	79	79
0.125	-2.125	-0.325	80	80	80
-0.075	-2.275	-0.325	155	155	155
-0.325	-2.325	-0.325	155	155	155
-0.175	-2.275	-0.325	155	155	155
-0.175	-2.225	-0.325	155	155	155
-0.475	-2.325	-0.325	155	155	155
-0.225	-2.225	-0.325	155	155	155
-0.225	-2.275	-0.325	155	155	155
-0.275	-2.275	-0.325	155	155	155
0.075	-2.175	-0.325	80	80	80
0.025	-2.175	-0.325	155	155	155
0.025	-2.125	-0.325	121	121	121
0.275	-2.075	-0.325	80	80	80
0.225	-2.075	-0.325	80	80	80
0.225	-2.025	-0.325	80	80	80
-0.025	-2.125	-0.325	155	155	155
-0.075	-2.125	-0.325	155	155	155
-0.325	-2.225	-0.325	155	155	155
-0.375	-2.225	-0.325	155	155	155
0.175	-2.025	-0.325	80	80	80
0.175	-2.075	-0.325	80	80	80
0.125	-2.075	-0.325	80	80	80
0.125	-2.025	-0.325	80	80	80
-0.125	-2.125	-0.325	155	155	155
-0.125	-2.175	-0.325	155	155	155
-0.175	-2.125	-0.325	155	155	155
-0.425	-2.225	-0.325	155	155	155
-0.475	-2.275	-0.325	155	155	155
0.075	-2.025	-0.325	80	80	80
0.075	-2.075	-0.325	80	80	80
0.025	-2.075	-0.325	80	80	80
0.025	-2.025	-0.325	80	80	80
-0.225	-2.125	-0.325	155	155	155
-0.275	-2.125	-0.325	155	155	155
-0.025	-2.025	-0.325	155	155	155
-0.025	-2.075	-0.325	154	154	154
-0.075	-2.075	-0.325	155	155	155
-0.075	-2.025	-0.325	155	155	155
-0.375	-2.175	-0.325	155	155	155
0.275	-1.925	-0.325	80	80	80
0.225	-1.975	-0.325	80	80	80
0.225	-1.925	-0.325	80	80	80
0.175	-1.925	-0.325	80	80	80
0.175	-1.975	-0.325	80	80	80
0.125	-1.925	-0.325	80	80	80
-0.125	-2.025	-0.325	155	155	155
-0.125	-2.075	-0.325	155	155	155
-0.175	-2.075	-0.325	155	155	155
-0.175	-2.025	-0.325	155	155	155
-0.425	-2.175	-0.325	155	155	155
-0.475	-2.175	-0.325	155	155	155
-0.475	-2.125	-0.325	155	155	155
0.075	-1.925	-0.325	80	80	80
0.025	-1.975	-0.325	80	80	80
0.025	-1.925	-0.325	80	80	80
-0.225	-2.025	-0.325	155	155	155
-0.275	-2.075	-0.325	155	155	155
-0.025	-1.925	-0.325	94	94	94
-0.025	-1.975	-0.325	93	93	93
-0.075	-1.975	-0.325	155	155	155
-0.075	-1.925	-0.325	154	154	154
-0.325	-2.025	-0.325	155	155	155
-0.325	-2.075	-0.325	155	155	155
-0.375	-2.075	-0.325	155	155	155
-0.375	-2.025	-0.325	155	155	155
0.275	-1.825	-0.325	80	80	80
0.225	-1.825	-0.325	80	80	80
0.175	-1.875	-0.325	80	80	80
0.125	-1.875	-0.325	80	80	80
-0.125	-1.925	-0.325	155	155	155
-0.125	-1.975	-0.325	155	155	155
-0.175	-1.975	-0.325	155	155	155
-0.425	-2.025	-0.325	155	155	155
-0.425	-2.075	-0.325	155	155	155
-0.475	-2.025	-0.325	155	155	155
0.075	-1.875	-0.325	80	80	80
0.025	-1.875	-0.325	80	80	80
0.025	-1.825	-0.325	80	80	80
-0.225	-1.925	-0.325	155	155	155
-0.225	-1.975	-0.325	155	155	155
-0.275	-1.975	-0.325	155	155	155
-0.275	-1.925	-0.325	155	155	155
0.275	-1.725	-0.325	80	80	80
0.275	-1.775	-0.325	80	80	80
0.225	-1.775	-0.325	80	80	80
0.225	-1.725	-0.325	80	80	80
-0.025	-1.825	-0.325	80	80	80
-0.025	-1.875	-0.325	80	80	80
-0.075	-1.875	-0.325	154	154	154
-0.075	-1.825	-0.325	155	155	155
-0.325	-1.925	-0.325	155	155	155
-0.325	-1.975	-0.325	155	155	155
-0.375	-1.975	-0.325	155	155	155
-0.375	-1.925	-0.325	155	155	155
-0.425	-1.925	-0.325	155	155	155
-0.425	-1.975	-0.325	155	155	155
-0.475	-1.975	-0.325	155	155	155
-0.475	-1.925	-0.325	155	155	155
0.175	-1.725	-0.325	80	80	80
0.175	-1.775	-0.325	80	80	80
0.125	-1.775	-0.325	80	80	80
0.125	-1.725	-0.325	80	80	80
-0.125	-1.825	-0.325	155	155	155
-0.125	-1.875	-0.325	155	155	155
-0.175	-1.875	-0.325	155	155	155
-0.175	-1.825	-0.325	155	155	155
0.075	-1.725	-0.325	80	80	80
0.075	-1.775	-0.325	80	80	80
0.025	-1.725	-0.325	80	80	80
-0.225	-1.825	-0.325	155	155	155
-0.275	-1.875	-0.325	155	155	155
-0.275	-1.825	-0.325	155	155	155
-0.025	-1.725	-0.325	80	80	80
-0.075	-1.725	-0.325	80	80	80
-0.325	-1.825	-0.325	155	155	155
-0.325	-1.875	-0.325	155	155	155
-0.375	-1.875	-0.325	155	155	155
-0.375	-1.825	-0.325	155	155	155
0.175	-1.625	-0.325	80	80	80
0.175	-1.675	-0.325	80	80	80
0.125	-1.675	-0.325	80	80	80
0.125	-1.625	-0.325	80	80	80
-0.125	-1.775	-0.325	155	155	155
-0.175	-1.775	-0.325	155	155	155
0.075	-1.625	-0.325	80	80	80
0.075	-1.675	-0.325	80	80	80
0.025	-1.675	-0.325	80	80	80
0.025	-1.625	-0.325	80	80	80
-0.225	-1.775	-0.325	155	155	155
-0.275	-1.775	-0.325	155	155	155
-0.275	-1.725	-0.325	155	155	155
-0.325	-1.725	-0.325	155	155	155
-0.325	-1.775	-0.325	155	155	155
-0.375	-1.775	-0.325	155	155	155
-0.375	-1.725	-0.325	155	155	155
-0.025	-1.625	-0.325	80	80	80
-0.025	-1.675	-0.325	80	80	80
-0.075	-1.675	-0.325	154	154	154
-0.075	-1.625	-0.325	80	80	80
0.175	-1.525	-0.325	80	80	80
0.175	-1.575	-0.325	80	80	80
0.125	-1.575	-0.325	80	80	80
0.125	-1.525	-0.325	80	80	80
-0.125	-1.625	-0.325	80	80	80
-0.125	-1.675	-0.325	81	81	81
-0.175	-1.675	-0.325	155	155	155
-0.175	-1.625	-0.325	155	155	155
0.075	-1.525	-0.325	80	80	80
0.075	-1.575	-0.325	80	80	80
0.025	-1.575	-0.325	80	80	80
0.025	-1.525	-0.325	80	80	80
-0.225	-1.625	-0.325	155	155	155
-0.225	-1.675	-0.325	155	155	155
-0.025	-1.525	-0.325	101	101	101
-0.025	-1.575	-0.325	80	80	80
-0.075	-1.575	-0.325	80	80	80
-0.075	-1.525	-0.325	155	155	155
-0.375	-1.625	-0.325	155	155	155
0.175	-1.425	-0.325	155	155	155
0.175	-1.475	-0.325	115	115	115
0.125	-1.475	-0.325	155	155	155
0.125	-1.425	-0.325	155	155	155
-0.125	-1.525	-0.325	155	155	155
-0.125	-1.575	-0.325	155	155	155
-0.175	-1.575	-0.325	155	155	155
-0.175	-1.525	-0.325	155	155	155
0.075	-1.425	-0.325	155	155	155
0.075	-1.475	-0.325	155	155	155
0.025	-1.475	-0.325	155	155	155
0.025	-1.425	-0.325	155	155	155
-0.225	-1.525	-0.325	155	155	155
-0.225	-1.575	-0.325	155	155	155
-0.275	-1.575	-0.325	155	155	155
-0.275	-1.525	-0.325	155	155	155
-0.025	-1.425	-0.325	155	155	155
-0.025	-1.475	-0.325	155	155	155
-0.075	-1.475	-0.325	155	155	155
-0.075	-1.425	-0.325	155	155	155
-0.325	-1.525	-0.325	155	155	155
-0.325	-1.575	-0.325	155	155	155
-0.375	-1.525	-0.325	155	155	155
0.175	-1.325	-0.325	155	155	155
0.175	-1.375	-0.325	155	155	155
0.125	-1.375	-0.325	155	155	155
0.125	-1.325	-0.325	155	155	155
-0.125	-1.425	-0.325	155	155	155
-0.125	-1.475	-0.325	155	155	155
-0.175	-1.475	-0.325	155	155	155
-0.175	-1.425	-0.325	155	155	155
-0.225	-1.425	-0.325	155	155	155
-0.225	-1.475	-0.325	155	155	155
-0.275	-1.475	-0.325	155	155	155
-0.275	-1.425	-0.325	155	155	155
0.075	-1.325	-0.325	155	155	155
0.075	-1.375	-0.325	155	155	155
0.025	-1.375	-0.325	155	155	155
0.025	-1.325	-0.325	155	155	155
-0.025	-1.325	-0.325	155	155	155
-0.025	-1.375	-0.325	155	155	155
-0.075	-1.375	-0.325	155	155	155
-0.075	-1.325	-0.325	155	155	155
-0.325	-1.425	-0.325	155	155	155
-0.325	-1.475	-0.325	155	155	155
